# 3D point list with one line of data per point:
#   POINT3D_ID, X, Y, Z, R, G, B, ERROR, TRACK[] as (IMAGE_ID, POINT2D_IDX)
# Number of points: 363, mean track length: 5.4470058780308594
18442 -3.1920478884158019 3.8088215896726632 2.2637516415497019 81 85 84 0.12404212225212548 47 5509 19 5036 53 3220 55 5760
18443 -3.1397712697684934 4.8911501396387163 1.8595545926468473 74 79 74 0.12958174329640312 63 3373 19 5042 53 3227 4 849
18444 -3.265347430080999 0.15557341454663043 3.7243950365351592 107 113 106 0.18551433624014024 63 6547 19 5048 53 3236 4 3482
18445 -3.265347430080999 0.15557341454663043 3.7243950365351592 107 113 106 0.18551433624014024 63 6548 19 5049 53 3237 4 3481
18446 -3.0522308045879996 5.2403018322631087 1.7214158155813954 55 57 52 0.15533821853630522 63 667 19 5059 53 1182
18447 -3.1862962721505736 -0.78518378726878102 4.0583543853729944 65 56 47 0.64311654897165926 47 5301 19 5062 53 3252
18448 -3.1997030327629044 -0.39511021661049833 3.9433250336277803 115 118 114 0.13901479279942275 63 6587 19 5064 53 3251 4 3530
18449 -3.2257701705334001 -1.2382569409096622 4.2802465432507946 120 124 123 0.12447512215320056 47 4278 19 5065 53 3258
18450 -3.1649402187811031 -0.57509305805045352 4.0101866001573976 62 53 44 0.24828521982512528 63 5674 19 5070 53 3265
18451 -2.9924895864900147 4.9248819661154144 1.8398273311238558 67 68 63 0.12855112610666103 63 3394 19 5072 53 1202
18452 -3.1202150163047153 0.33528327782508327 3.6542172866313245 119 121 116 0.12375266336815555 47 4467 19 5076 53 3263 4 3486
18453 -2.9824799344043318 4.3090369398660391 2.0865629747550209 141 143 138 0.043715316598100282 63 5288 19 5079 53 3249 4 948
18454 -3.1024198766633462 -0.14641242127014165 3.8405269181268555 144 149 145 0.072195909556662927 63 6580 19 5080 53 3271
18455 -2.9675830177322959 3.2756259209604308 2.4890079946052297 139 147 145 0.43694672847192051 47 5505 19 5084 53 3262 55 4334 58 813
18456 -3.046282993122114 -0.26427731373856023 3.8829633710644891 154 163 160 0.37449690738494762 63 6593 19 5094 53 3291 4 3537
18457 -3.046282993122114 -0.26427731373856023 3.8829633710644891 154 163 160 0.37449690738494762 63 6594 19 5095 53 3292 4 3538
18458 -2.8673747482931042 5.1553561785783879 1.7474812632283352 122 127 120 0.20783099930665988 63 3384 19 5100 53 3261 4 860
18459 -2.8922702113584391 3.6317178616316657 2.3556689112702034 82 87 84 0.19097487644954061 63 3631 19 5106 53 3279
18460 -2.8566173336277227 4.1826083999122758 2.1443820266538069 70 75 71 0.21692398095766877 63 5311 19 5113 53 3278 4 985 55 5781 58 2085
18461 -2.8461060761564689 4.1740842769131969 2.1389106899619867 70 75 71 0.11568705805165275 63 5310 19 5114 55 5782
18462 -2.8579201838810593 2.1490233626276929 2.9302733464441646 73 79 73 0.27665964573100593 47 4736 19 5116 55 4263
18463 -2.9535426756583503 -1.0717504368844044 4.2122897061568985 110 115 111 0.20243897551335674 63 6633 19 5122 53 4546 4 3625
18464 -2.6150891106634715 5.0676129731847182 1.7694579847950771 73 78 72 0.21009742752442753 63 3459 19 5136 4 909
18465 -2.6527723748215681 4.3374925857832523 2.0805944129895311 135 138 131 0.10166534309759567 63 3577 19 5139 53 3323
18466 -2.6142326350099556 3.8248363055265338 2.2488086153988536 62 52 45 0.51435847761125919 47 5539 19 5140 53 3327 55 5787
18467 -2.7873195172193475 -1.3099992655506449 4.3058464517526236 51 48 33 0.31447646417161673 47 4343 19 5141 53 3349 4 4987 55 1643 45 4128
18468 -2.7880005457251134 -1.3085864041538033 4.3076246261619522 51 48 33 0.24288756479680079 47 4342 19 5142 53 3350 4 4988 55 1642
18469 -2.7574864275296962 -2.0599015595935901 4.6099930492523367 118 124 120 0.079659511391596605 47 2707 19 5145 53 3363 55 3974
18470 -2.5469457603401264 4.6509742771864806 1.9490154540709452 54 55 48 0.22957478227658756 63 3545 19 5147 53 3335 4 980
18472 -2.6573988338894909 -1.1492175379116587 4.2497251073273627 111 116 114 0.092909133632056384 47 4402 19 5151 53 3367 4 3669
18473 -2.6406156274739105 -2.6245569001906963 4.8252605982808143 73 77 76 0.12611341028006437 47 4259 19 5153 53 3381
18474 -2.5596760392048292 -1.2950293256564418 4.2973868680690028 57 50 42 0.16898447908859213 47 4406 19 5159 53 3379 4 3688 55 4040
18475 -2.5389129985296579 -1.6304183134606276 4.4352939853027671 77 83 81 0.23674735897180063 47 4366 19 5163 53 3387 4 3725
18476 -2.4892709208522454 -1.1886337292998157 4.2599117358545726 119 124 120 0.1704088102310706 47 4441 19 5170 53 4581 4 4995 63 7164 55 4058
18477 -2.4020330078739911 -1.8208420242934968 4.5148691737040201 71 76 72 0.22904981598306762 47 4374 19 5187 53 3413
18478 -2.2997673678358086 -2.0923418530941724 4.6337032423164652 70 75 71 0.3356285486396402 47 4370 19 5203 53 3435 55 1670
18479 -2.2438216709058274 -1.4338159423219439 4.3540500236556259 129 134 130 0.085561362471391927 47 4468 19 5206 53 3429 4 5032 55 4082
18480 -2.266372238825058 -2.0242212367843422 4.5902517367325881 68 74 73 0.32667347371040079 31 4237 19 5208 55 4032 58 559
18481 -2.2168576597547904 -2.0539202641395171 4.61125154804229 121 129 130 0.12956030519459288 47 4397 19 5216 53 3451 55 1693
18482 -2.2168576597547904 -2.0539202641395171 4.61125154804229 121 129 130 0.12956030519459288 47 4398 19 5217 53 3450 55 1692
18483 -2.0439556720356431 4.0101693120900945 2.2226397767670303 134 137 130 0.32790547564352118 47 5577 19 5221 53 3416 55 5837 58 2134 54 633
18484 -2.1332133824705632 -1.0061559285481576 4.1788730395504459 135 147 141 0.074035768822866888 47 5394 19 5225 55 4127
18485 -2.1254078808827046 -2.4269386256884866 4.7764554950146252 73 79 75 0.15998524801694511 47 4378 19 5232 55 4026
18486 -1.8837006646880385 4.7328875679555349 1.9166630559113014 66 69 62 0.43923674459396017 63 3686 19 5236 53 3427
18487 -1.7842730048927091 3.8366203778748673 2.2990987028914325 70 75 71 0.42665573848180366 47 5596 63 5466 19 5255 53 3463 55 5853 58 3071 54 659
18488 -1.6477750798632897 5.010183853418682 1.8016129858467118 79 81 78 0.2645678513713185 63 3699 19 5268 4 1118
18489 -1.6252144870598209 4.0558156941010406 2.2013395280226922 65 70 66 0.13098284476769281 47 5623 19 5272 55 6651
18490 -1.3962675370734681 4.4128415894088375 2.0670186073838059 53 41 35 0.23638069247828264 13 2374 63 1485 19 5309
18491 -1.5011410400532015 -2.1064201699999274 4.6435688229052667 62 58 47 0.20993627962005298 47 3128 19 5317 53 3570 55 1899
18492 -1.1265364950158345 4.4033626935383561 2.0912586683333085 149 154 150 0.19365057671743019 63 3941 19 5354 53 3567 4 1315
18493 -1.1350403708784891 4.415332215379058 2.0974271837443346 149 154 150 0.22829818162720605 63 3940 19 5355 53 3566 4 1314 54 715
18494 -1.1991378117261082 -1.1410080187981329 4.2348065855887231 67 73 71 0.1955916802227573 47 4750 19 5357 53 4711 55 4271
18495 -0.86551439917186646 -1.9394910853196368 4.5792938433681396 68 75 67 0.14132244806433081 31 2976 19 5403 55 2131 47 3427
18497 -0.61338178020141743 -2.0899584412169765 4.6372923086459243 101 106 102 0.20497112085201641 47 1592 19 5435 53 3706
18498 -0.20915631410908903 0.69273636003010219 3.4625947994634738 177 61 97 0.34553818977294282 3 3412 19 5470
18499 -0.2254185262759138 -1.6423671101298098 4.472318106888066 79 92 103 0.15679826818318229 47 4836 19 5473 53 4791 4 5979
18500 -0.17878206920181497 -1.7262505305590359 4.5075339425845149 73 79 75 0.32022876332443501 31 1232 19 5478 53 4794 4 5983
18501 -0.0043490883774268312 -1.9472451293743795 4.5998175334241225 52 54 49 0.32369343880463319 47 3594 19 5491 53 4809 4 6015 55 2322
18502 0.1403525742590771 -1.5242659040734658 4.4333352476382704 106 118 114 0.26434852427288519 47 3654 19 5506 53 4829 58 863
18503 0.18022608559189179 -1.8694980295524199 4.576790803014827 133 139 136 0.25589525383452544 47 4872 19 5510 53 4831 55 2368
18504 0.23224089540336257 -1.5902611156807291 4.4767558393799431 60 65 61 0.35826867523797945 47 3667 19 5516 53 3814 55 4427
18505 0.46001524275710531 0.75572005209492865 3.4688024998587532 19 2 13 0.078280313041090815 63 6034 19 5535 53 4834
18506 0.68014558927742397 0.84112617759419328 3.4088727078111378 75 10 12 0.31520862434639491 12 2734 29 4316 19 5568 60 2400
18508 0.69600156994902884 -1.3067145261527102 4.3564490050628342 104 113 110 0.25678740784843934 12 4362 19 5587 53 3895 55 2497
18510 0.97886055237090819 1.8798250777106296 3.0223153716218198 44 55 31 0.40177737459193652 47 5193 19 5614 53 2257 4 2113
18512 1.0875482763841271 -1.121010195288147 4.2951579649991052 61 67 65 0.39094815802596178 12 4300 19 5633 53 4964 55 2615 47 2028 58 987
18513 1.1245863177709428 -1.4648838531176107 4.4415490211547359 56 65 61 0.33142191828062839 47 3818 19 5637 53 4969 55 2585
18514 1.2894055984526611 3.7892040538325267 2.3762399076365059 55 61 59 0.35864895648718836 63 2321 19 5649 53 2312
18515 1.2894055984526611 3.7892040538325267 2.3762399076365059 55 61 59 0.35864895648718836 63 2322 19 5650 53 2313
18516 1.3773380205809478 3.7629708433948399 2.4005000650017965 50 54 49 0.38029309458575122 63 2354 19 5659 53 3945
18517 1.4097205791435348 3.4167379258855894 2.5417575545431226 50 55 50 0.37392638289410352 63 4565 19 5661 53 3958 54 2084
18518 1.4472506943214618 -1.3667365158043052 4.4094476742788338 97 110 107 0.048474390073416113 47 3888 19 5673 53 5025
18519 -6.6394372613558961 0.35018848930199015 3.6485243377201613 78 83 79 0.097514457380760325 63 6301 19 5709 53 4299
18520 -6.6265362029330488 0.34862349308933438 3.6420510530405528 78 83 79 0.11284394413009528 63 6302 19 5710 53 4300 4 4663
18521 -6.5465123442233937 0.73106094391014287 3.4802528517168425 120 126 124 0.21832759824413378 63 6997 19 5712 53 4304 4 4655
18522 -6.3199504854243935 2.491155365758507 2.786035533175371 88 94 92 0.33677218904772838 63 6236 19 5722 4 3039
18523 -6.0865524508777069 2.4393005337532823 2.7958382745452206 133 135 130 0.1796605313101772 63 5065 19 5737 4 629
18524 -5.9959603837468736 4.2690391347508188 2.0984118631705759 127 132 126 0.10332394523851607 63 4977 19 5742 53 4318 4 2999
18525 -6.0687174326760793 1.8867323348756986 3.0309436197978936 84 89 84 0.28439768728617482 63 6995 19 5747 4 4646
18526 -5.9768165779094291 0.88320081553625462 3.3853648509697516 46 47 39 0.45916612240433369 31 6249 63 7007 19 5754 53 4325 55 5396 32 4907
18527 -5.8206674931112818 4.2543270461889184 2.0975481860020926 79 84 78 0.19262771135758264 63 6200 19 5758 53 4331 4 3005 55 5541
18528 -5.8112401742135882 1.8010722967044823 3.0384971794252542 130 135 131 0.21620423580201531 63 6282 19 5760 4 4657 55 5435
18529 -5.6957959064066639 3.9292817605812074 2.2313263373506445 82 87 82 0.10441528006493841 63 6218 19 5767 53 4335 4 3025
18530 -5.6327938015774928 4.2373519307513527 2.0971461226457735 133 138 132 0.2948664283051165 63 6206 19 5768 53 2958 63 4995 55 5560 58 1891 54 376
18531 -5.6444398306024661 1.5065783439308533 3.172177427128025 48 51 44 0.31115369353885375 63 6308 19 5773 55 5440 32 4942
18532 -5.6707872356801898 1.512940695872784 3.1822368275573205 48 51 44 0.095641225651152975 63 6307 19 5774 4 4675
18533 -5.5263663553777151 3.8808154191174573 2.2566441768976619 143 149 142 0.16206726229706631 63 6226 19 5775 53 4339 4 3033 55 6469
18534 -5.3533238314914025 4.5131068323738432 2.0078415263503473 76 78 75 0.19525070288301694 63 5018 19 5784 53 4341 4 3024
18535 -5.4283085899255648 1.6222041353025436 3.1291410467492842 131 134 127 0.052952374878551471 63 7010 19 5789 4 4684
18536 -5.4865900935349572 -0.61319018804532799 4.0231861584703026 95 100 96 0.60369108821916406 63 7059 19 5794 53 4350
18537 -5.1908641483441027 4.1682357623879023 2.1100705282004943 80 85 79 0.4097418933312077 63 6227 19 5795 53 4351 4 3041 55 6475
18538 -5.3475405483351723 1.8205439506743943 3.0651659992181588 147 153 149 0.065818556339888021 63 6315 19 5796 55 5484
18539 -5.3360214539981179 1.8172709686133062 3.0584714948492766 147 153 149 0.13300263902068585 63 6314 19 5797 4 4683
18540 -5.2592879701043023 2.1699907802303078 2.9335116328977162 76 80 74 0.33867950115578371 47 5807 19 5804 55 5505
18541 -5.2711670107658914 1.199567931798637 3.2954621695612532 77 80 73 0.70902033890595384 31 5941 63 6345 19 5805 4 4701 55 5454 32 5404 58 1783
18542 -5.3290288018848191 -0.10323529745134039 3.8540113547432919 91 96 90 0.15222767427445649 63 7052 19 5808 53 4366 4 4752
18543 -5.0570757534941251 4.4025404836051942 2.0357040610932549 87 92 88 0.20695172913083479 63 6230 19 5810 53 4367
18544 -5.2646886234974986 0.14347252587515585 3.7389929920646643 160 163 156 0.263593415303156 31 5899 63 7046 19 5813 4 4745 32 4897
18545 -5.1712592138589786 -0.35841908917378174 3.9190096678865962 70 73 66 0.54837282269441268 31 5874 63 7066 19 5818 53 4371 4 4775 32 4880
18546 -5.2048645983531134 -0.3534856351972297 3.9422690122736461 70 73 66 0.24725651064239917 63 7065 19 5819 53 4372 4 4774
18547 -4.8927443638753108 4.8276993497609215 1.8515588251406359 81 86 80 0.10888539103848582 63 5025 19 5820 4 3032
18548 -5.1022185318720332 0.073664700839995309 3.7478687528318604 83 86 79 0.68275513782328212 31 5900 63 7055 19 5821 4 4758 53 3014
18549 -4.9684182885715149 0.96409813114294152 3.3831683949031963 83 90 84 0.25069875920902374 63 7040 19 5825 53 4377 4 5671
18550 -4.7915551125774325 3.2695910834652349 2.4691063770395636 114 123 118 0.29169746651874645 47 5853 63 6286 19 5828
18551 -4.5163720277148487 2.886030903148471 2.6347956111587383 121 127 123 0.095731987019027201 47 5858 19 5841 53 4393 55 6481
18552 -4.6391448930409123 -0.12325077568283781 3.862070003028558 79 84 78 0.28322862366820867 63 7083 19 5845 53 4404
18553 -4.65720740280205 -0.12164478944043451 3.8740502312006875 79 84 78 0.27739469566296932 63 7082 19 5846 53 4403 4 4807
18554 -4.5963166542502591 -0.5388730283144092 4.0014255378553205 61 66 60 0.16905024958819309 63 7092 19 5849 53 4405 4 4824
18555 -4.5124301587139248 0.0067222192871991123 3.783853189368803 74 76 71 0.26280192680894759 63 6467 19 5852 53 4409 4 4803
18556 -4.0796946708982125 4.7065534109742586 1.9264774289667663 52 55 49 0.29325465636378634 63 5138 19 5871 53 3097 4 728
18557 -4.1666280295145768 -0.38796156378255597 3.9400155024267587 117 119 108 0.11639265627225852 63 7101 19 5878 4 5729
18558 -3.8822099012056817 -1.6360156132061605 4.449595772438582 66 71 65 0.16219362131038775 31 5215 19 5892 53 4472
18559 -3.6243844572646324 4.3535026766567286 2.0969272410145829 69 74 68 0.33818406044613564 63 6320 19 5897 53 3162
18560 -3.6071032021376546 3.2128931243678083 2.5398598547021485 87 92 88 0.38248872101979225 47 5908 19 5900 55 6529
18561 -3.3309549399582981 4.3658993329900921 2.0380837996413432 156 159 152 0.26423939441657268 63 6335 19 5916 53 4486 4 3165
18562 -3.2283996591008095 5.0122742217803662 1.8129901171051757 138 140 135 0.11052994213744168 63 5213 19 5928 53 4504 4 3145
18563 -3.3040749864959849 -0.37599949494985091 3.9415769111430135 53 55 50 0.087003876676212899 63 7124 19 5934 4 4904 53 3239
18564 -3.3301858716492263 -1.4832051903575429 4.3757725995889158 77 81 78 0.21635023321915123 47 5270 19 5935 53 4534 55 3938
18565 -3.0251170997457302 4.7019126388507493 1.921914389418717 71 73 70 0.24145119458037798 63 5252 19 5943 53 4531 4 3185
18566 -2.9890870079118335 4.2291115525147278 2.103290095567905 56 58 55 0.27328929355359305 63 5291 19 5947 53 4536 4 3214 55 7085
18567 -3.1544811567292736 -0.95894287518657406 4.1660049015067164 62 55 47 0.16342992886851598 47 5302 63 7139 19 5949 53 4543 4 4951
18568 -2.864981384570398 -0.79578606013208608 4.1029691236185819 61 64 62 0.28067958426152867 63 7147 19 5971 53 4550 4 5791
18569 -2.820746853796078 -2.9669529322517918 4.9608494930412217 70 75 71 0.68420030109486507 47 5246 19 5979 53 4566 55 5490
18570 -2.5011329727890961 3.8267997540750676 2.2953701978430652 72 61 53 0.63904440618361302 47 5955 19 5986 55 5800 58 3038
18571 -2.4319785326887744 5.2500108064797075 1.7338406975437275 60 65 61 0.2813170446382634 63 6358 19 5989 53 4555 4 3212
18572 -2.2391640586732175 4.5037389877420537 2.0216587423441932 73 78 73 0.20941835797776595 63 5361 19 5995 53 4572 4 1059
18573 -2.3598855322409014 -1.7655305783294697 4.5130566787637623 78 83 79 0.17002702336487654 47 5855 19 6003 53 5389
18574 -1.9631005501247794 5.0782929372161894 1.7643780250081593 34 39 34 0.37459405404440305 63 6391 19 6013 53 4586 4 3275
18575 -1.9631005501247794 5.0782929372161894 1.7643780250081593 34 39 34 0.37459405404440305 63 6392 19 6014 53 4587 4 3276
18576 -2.1273143860836665 -2.0243425374630188 4.6033938402447712 73 81 76 0.055690757265034058 47 5343 19 6016 53 4623
18577 -1.8201833363677398 4.9284885964640228 1.8615866314136282 80 84 78 0.51545612857816092 63 6412 19 6026 53 4610 4 3305 54 1869
18578 -1.9569889207737776 -2.5549680585933658 4.7931046108316586 73 79 75 0.15483616940946007 47 4399 19 6027 53 5427
18579 -1.6135844475787813 3.9425853007145841 2.2811302000915625 60 62 59 0.25189624709076985 13 5325 19 6039 53 4649
18580 -1.6010420389296198 -0.49630535774373924 3.9961095709504164 62 53 46 0.57717113307344681 13 6471 19 6048 53 4672 63 6708
18581 -1.60500603757386 -1.1786678088983098 4.252729037632812 147 152 146 0.18320257792766551 63 7218 19 6051 53 4674 4 5076
18582 -1.3570027931905457 4.1276462364337458 2.1889409950341241 66 56 48 0.26467649591889725 47 6017 19 6070 55 6674
18583 -1.0817002476687372 4.0045960173476907 2.2456450112836932 59 61 51 0.57549457758017664 47 6030 63 5558 19 6086 53 4694 55 7150 54 1899
18584 -1.1822532533439543 -1.3996170334879612 4.3471606569312353 120 128 126 0.50710624012269323 13 6502 19 6087 53 5485 63 7538 4 5902 55 5707
18585 -1.1769581005749841 -1.8746007608998525 4.5428029332696811 64 66 61 0.15862382013661233 47 4646 19 6091 53 5490
18586 -1.1769581005749841 -1.8746007608998525 4.5428029332696811 64 66 61 0.15862382013661233 47 4647 19 6092 53 5491
18587 -1.0249653950720554 -1.3630564889983128 4.3485186022307802 118 124 121 0.49293205419321279 63 7261 19 6102 4 5918
18588 -0.53516135104803098 -1.7428771494427351 4.504741891275807 137 180 230 0.29537914081033095 47 5500 19 6143 55 5755 58 2017 54 2881
18589 0.42342249417483901 0.67343822232428896 3.48761129276508 14 19 12 0.32397934186249611 13 5771 19 6204 53 5566
18590 0.57632816442419654 0.92048406723438025 3.2346509599554842 73 78 72 0.56941409208802718 13 5740 63 7258 19 6209 53 5568 4 5910 45 4953
18591 0.57665850633565019 0.92057222737758515 3.2341328828813447 73 78 72 0.64469634617659277 63 7259 19 6210 53 5567 4 5911 45 4954
18592 0.70489458072668343 -1.3935739303747003 4.3948501704231857 123 140 140 0.29990087066857868 31 4771 19 6241 53 5617 55 5843 32 4171 58 3049
18593 0.83317162667922717 -1.5573906141996567 4.4718239045290753 140 149 144 0.13115944697270868 47 4950 19 6260 53 5634
18594 0.8898829227475944 -1.4013448335165868 4.4122740505545588 120 136 130 0.17391243307371046 47 4973 19 6270 53 5645 55 5865 32 1381
18595 0.88648603287090477 -1.4811572153373895 4.4431828363010064 115 128 127 0.34112206784825583 47 4967 19 6271 53 5646 55 4532
18596 1.1639100521035399 1.4676014132942379 3.2032260524742351 178 46 85 0.12072893785375269 63 6875 19 6290
18597 -6.6955529168112111 -0.2312131938854084 3.8271539049169943 114 118 117 0.47689985760379455 63 7368 19 6342 53 5202
18598 -6.3562389090208331 0.66697511778123664 3.5200849186574397 82 86 85 0.48403300263109833 31 6234 19 6360 55 6376
18599 -5.6555029020166412 -0.071062699610532382 3.8342001251535054 80 84 78 0.27762365732365402 31 6227 63 7384 19 6377 53 5235 4 5672
18600 -5.6315498934019947 -0.071410690897780335 3.8115312693987931 80 84 78 0.41399198913586671 31 6228 19 6378 32 5368
18601 -5.3683912991320861 3.3268747011450386 2.4600753334390064 78 82 81 0.083101813813171124 63 6985 19 6381 53 5238
18602 -5.0109891642815318 -0.54630911469049237 4.0054972733317058 105 110 105 0.29295521256102702 31 6226 63 7415 19 6389
18603 -4.6475609643765941 4.1219849194677805 2.1466604669135534 88 94 92 0.15632022614729668 63 6263 19 6396 53 5251 55 7033
18604 -4.5785810007290078 2.6111880416004905 2.7492543461190362 90 95 91 0.098028303531480177 63 7014 19 6398 55 7011
18605 -4.4556423793550941 3.1469582961773539 2.5751829782203575 73 64 55 0.27117090068600685 63 7011 19 6403 53 5261
18606 -4.4460552406003444 -1.1581545998632155 4.2512151570981702 107 112 108 0.37886036832801817 31 5868 19 6406 53 5265 4 5734 55 5425
18607 -4.3952299168708304 -0.91224399590880789 4.1788922453881669 44 47 40 0.29487252953315052 31 6231 19 6409 32 5364
18608 -4.2831636273148197 0.19906185906609017 3.7056264815962465 83 88 82 0.39677061919055923 63 7425 19 6412 53 5267 4 5712
18609 -4.0657928423361245 2.9255444264944201 2.6691161879564871 77 62 57 0.2879239723708088 47 6146 19 6417 53 5276
18610 -3.8416843921852712 2.6066060545384655 2.7419754017822604 82 69 61 0.82445892764053097 47 5878 19 6424 55 6499 58 2956
18611 -3.7657229192976138 2.5204044434819615 2.7607591207254427 79 65 56 0.38494312680840997 47 6151 19 6427 55 6502
18612 -3.6490135609794989 3.9346454273186113 2.2278784371365026 70 72 67 0.47891636970524476 63 6331 19 6431 53 5288 55 7334
18613 -3.5820858705566985 0.14384244487797415 3.72150592587337 78 60 53 0.25805122265560748 31 5954 19 6442 32 4935
18614 -3.5894473745854958 0.14245931520579225 3.7329097671875453 78 60 53 0.33786991920507364 31 5953 19 6443 53 5294 63 7105 4 5736
18615 -3.6290307688167558 -0.25997293236739272 3.9236206531439901 61 54 43 0.73603659843314873 31 6259 63 7440 19 6444 53 5296 4 5750 21 4348
18616 -3.5041123407582409 -1.198281549196158 4.228220695233694 76 81 77 0.31871533546520653 47 5810 19 6450 53 5302
18617 -3.5041123407582409 -1.198281549196158 4.228220695233694 76 81 77 0.31871533546520653 47 5811 19 6451 53 5303
18618 -3.364412552317948 4.2129276315344297 2.1222572116403313 73 77 76 0.41074391732150373 63 7018 19 6452 4 4705
18619 -3.2980181031637907 4.2579653969142717 2.0925039656654949 80 85 79 0.29306438650831079 63 6343 19 6453 53 4498 4 3184 55 7078
18620 -3.2358156766513257 4.4223828250050303 2.0151349171717992 76 79 76 0.26660421344453183 63 7017 19 6457 53 5298
18621 -3.1680368894276008 4.0170126268380582 2.1796514248588057 157 163 159 0.23155751401491731 63 6361 19 6461 53 5305 4 3206 55 7080
18622 -3.2689981455341481 0.32608568855573794 3.6680385676049974 76 78 73 0.53741226226678274 13 6569 19 6468 53 5314 4 5746
18623 -3.1623296765323445 2.9041310778134588 2.6505993896266302 79 68 61 0.25486681199789701 47 6165 19 6469 53 5313
18624 -3.0863742235733338 2.8158246997276892 2.6520275584612043 78 73 67 0.35701786733576785 47 6166 19 6470 55 6543
18625 -3.1168255752249188 -1.0520202534806937 4.1875961492327294 60 51 44 0.59153313410196229 47 6118 19 6471 53 5880 4 6256 54 2759
18626 -3.0784814926770423 -0.29469912674580545 3.9241051508886207 143 152 149 0.27221328372089876 31 5950 63 7131 19 6472
18627 -3.0593885064262629 -1.1495704675355181 4.2346440548738649 64 54 47 0.24679203642135872 47 6119 19 6474 53 5883
18628 -3.0593885064262629 -1.1495704675355181 4.2346440548738649 64 54 47 0.24679203642135872 47 6120 19 6475 53 5884
18629 -3.0051977806670047 -1.2488951441593881 4.2651072895852788 61 55 47 0.28095868342572755 47 5832 19 6476 53 5332
18630 -2.9081519498430382 -0.89489416039087055 4.1464367832302393 107 113 109 0.12275697696380163 63 7467 19 6484 53 5345 4 5792
18631 -2.6742742109451103 5.3465615286191799 1.6879842587215068 86 89 80 0.33088921605443244 63 6339 19 6486 53 5333
18632 -2.5895979481490672 4.4352919962936612 2.0360816780906958 117 120 111 0.36821752506557154 63 6379 19 6493 53 5343 4 3251
18633 -2.5437817488563201 4.1519270984924308 2.1573126215180163 59 61 58 0.29092387090689037 63 6397 19 6498 53 5350 55 7358
18634 -2.5534084861080681 4.0136895369646055 2.2478686117988422 53 35 23 0.29949376383422838 63 6407 19 6502 53 5353 4 4770
18635 -2.4679586958874555 -0.99266099907882865 4.1824910920355594 58 63 59 0.29094065562959143 63 7482 19 6505 53 5378 4 5815
18636 -2.3708753888769682 -1.0612714767014262 4.2004857270084237 139 148 145 0.50907890648420684 47 5866 63 7679 19 6510 53 5915 4 6529
18637 -2.1440888094042645 4.9236297746363338 1.8220362368156 62 64 59 0.16479726872423131 63 6383 19 6517 53 5375
18638 -2.2628515590252345 -0.43874921146875007 3.9437121124315819 63 54 45 0.096146016738904883 47 5886 19 6520 53 5385
18639 -1.8322138050944539 4.3876891124311532 2.0783290826203875 89 94 93 0.12342422392308844 63 6444 19 6537 53 5401 4 4799
18641 -1.7550122945377651 4.3379596972405192 2.1167797967617941 63 44 37 0.25497025614196789 63 7078 19 6543 53 5413 4 4812 54 2851
18642 -1.7673603728022713 -0.57465225068849823 4.017180118000935 82 87 83 0.35147546583339551 63 7495 19 6551 53 5935 4 6297
18643 -1.6336817310826246 -0.090671101754362826 3.8365124474443655 74 76 71 0.34583623481662468 63 7490 19 6564 53 5448 4 6290
18644 0.54222032515786256 0.81815005370687244 1.0337472837022383 83 50 69 0.23761717593367046 63 7118 19 6567
18645 -1.4261750912522337 -1.0774027153845536 4.2218310949286399 73 78 72 0.19286399899137829 47 5910 19 6574 55 6530
18646 -0.93097645856394096 -1.9899213000413101 4.591158585331125 143 152 149 0.22824148689194682 47 5464 19 6601 53 5509 55 5701 58 1952
18647 -0.80794129205696064 4.0898391852134219 2.248924993694704 150 181 233 0.24379013555714815 63 7113 19 6603 4 4887 4 5755
18648 0.38536994720359086 0.51150018923401219 3.5463486430516213 202 58 97 0.27523086559650967 13 5793 19 6664 55 5913
18649 0.40114261646845606 -1.6449905072814806 4.4971927844662591 65 71 67 0.14487125442876966 31 4700 19 6669 53 6012
18650 0.76091163571226861 -1.3350163989086556 4.3819382006716516 41 47 45 0.34085949740225424 31 5560 19 6684 53 6034 55 6634 32 4180 58 3725
18651 1.2205200658264581 -1.4075021955205083 4.4264914785725269 58 67 64 0.3380942890875277 31 3537 19 6716 53 6060 55 5908 32 1444
18652 -7.1467570301365644 2.388865093403469 2.8102179750332557 138 143 139 0.28625952268656424 63 7342 19 6725 4 6157
18653 -6.0146614404705776 0.31023977124484453 3.6506947310111024 78 83 77 0.57049313907858057 63 7604 19 6744 53 5825 4 6186
18654 -6.0146614404705776 0.31023977124484453 3.6506947310111024 78 83 77 0.57049313907858057 63 7603 19 6745 53 5824 4 6185
18655 -4.7727466631574851 2.1631868185577043 2.9043568272292704 82 75 69 1.2433804355061975 47 6277 19 6761 55 6995 58 2907
18656 -4.8200632917820716 0.19870665916645153 3.7175109838156062 83 86 79 0.12665691021074124 63 7403 19 6765 4 6199
18657 -4.6968351382394902 0.3215533731734726 3.6396980053864136 71 74 68 0.36004371902820381 63 7402 19 6768 53 5257 4 5690
18658 -4.2855827818906489 -0.47086042431315872 3.9747023295429349 59 62 54 0.11770248855915882 63 7633 19 6775 4 6228
18659 -3.9444753104844019 5.3378664277112096 1.6712430240229974 93 96 89 0.31645897387016719 63 6986 19 6779 53 5849
18660 -3.8022297418719364 5.5865819821617846 1.6396185222082849 108 111 104 0.81390323936982967 63 6991 19 6785 53 5858
18661 -3.3991895940805748 -1.6756594136059215 4.4753894264443961 61 63 58 0.16821487719689254 47 6098 19 6799 53 5873 4 6266
18662 -3.2961076155163513 -0.57993842305689869 4.0297090201162682 60 52 41 0.57400633180430227 63 7649 19 6800 53 5874 54 2758
18663 -2.8021172732297046 4.511675543300286 2.0089382384479553 61 63 58 0.24666579212059955 63 7031 19 6807 53 5329 4 4725 54 2806
18664 -2.7916819958784065 4.5018988154888433 2.0023532034257534 61 63 58 0.1283984599342807 63 7030 19 6808 4 4724
18665 -2.7731080378853581 4.3566226434453537 2.0796609792711216 72 73 68 0.27534850175965869 63 7039 19 6810 53 5881 4 5675
18666 -2.555594980472109 5.1789768619547827 1.7607138894998204 68 70 65 0.20329534923272544 63 7026 19 6819 53 5348
18667 -2.5389704927000247 5.1573936023516298 1.7517929771876677 68 70 65 0.12198425874292453 63 7025 19 6820 4 4719
18668 -2.6467862743007009 -0.84218253367208973 4.1335310526541189 49 36 28 0.41247218694691695 47 6134 19 6827 53 5898
18669 -2.6296898063362293 -1.8947404954462019 4.5334859531131162 55 51 42 0.31817955022201927 47 6122 19 6834 53 6176 55 7001 58 2895
18670 -2.4482923198269657 4.744861691515287 1.9314919441556964 42 45 36 0.2051966042023049 63 7382 19 6835 4 5679 45 2862
18671 -2.3765148292390226 -2.3989795794790933 4.7435168505453236 65 58 48 0.22278337870648549 47 6125 19 6844 53 5919 55 6468
18673 -1.117260342394186 -2.2850645491465515 4.7042235757155151 102 109 102 0.14365454401895789 31 5930 19 6866 53 6206 55 6516
18674 -0.76326819390418599 4.2899987054611284 2.1406668380217355 61 63 58 0.94370520118570234 63 7110 19 6874 45 2937
18675 0.71753769242236176 1.0224795321005016 2.1672980426888402 5 5 2 0.98705231545182437 47 6033 19 6898 53 5524 55 6646
18677 0.35359337495717547 0.63886346892334511 3.5332151922658923 198 49 91 0.38682621651325161 63 7543 19 6907 53 5995
18679 0.95801952715659777 1.854362978010889 3.0341699951315473 4 77 24 1.3327958668965636 31 6529 62 6782 19 6934 53 6264 55 7184
18680 1.0530169816344785 -1.2336649530820127 4.3529053326465581 62 66 65 0.48577579491537809 31 5592 19 6938 53 6278 55 6664 58 3748
18681 1.2320537675387064 1.1612931099413455 3.2925082697280863 162 156 191 0.39601106438859868 63 7568 19 6941 53 6047 4 6367 55 7415 58 4525 54 4422 42 3336
18682 -5.5865652016974083 3.4905148728121209 2.4113337280777194 122 127 121 0.34661990935543313 63 7592 19 6961 53 6132
18683 -4.2669927015395519 2.0527137784458476 2.9539521910057087 75 59 51 0.4303703096924143 47 6293 19 6970 4 6195
18684 -4.0678929282540546 3.7902460613250608 2.2664624708917156 96 101 96 0.34869433218991536 63 7599 19 6974 53 6138
18685 -4.0990109595355406 3.2708767157461152 2.4855664523406396 67 62 58 0.31362365643207057 47 6421 19 6976 53 6140 55 7484
18686 -4.0950695786530575 3.024827321313353 2.5928017476023513 75 70 61 0.23186725856975127 63 7607 19 6977 55 7312 58 4182
18687 -3.5937798179947249 -0.90850991737568088 4.1792907642154971 106 111 106 0.60193418505249674 47 6397 63 7825 19 6988 53 6333 4 6675 32 5705 45 5326
18688 -2.9541400423286928 3.1420866838118653 2.4905198805902162 71 66 63 1.3879165294277291 47 6327 19 6994 53 5875 55 7342 20 5440
18689 -2.6734625546818074 -1.3902173867192378 4.3928571107826651 62 50 34 0.67309905554362259 47 6292 19 6999 55 7298
18690 -2.4590667342312198 3.3444210134050172 2.5119868126079736 146 177 223 1.0636683237886364 47 6446 19 7000 53 6173
18691 -2.1450491931084317 -1.1120713586678574 4.2333613347722903 64 54 42 0.82407127875274611 63 7777 19 7008 4 6696
18692 -1.9993779378683429 3.9058551029942152 2.2555383106659255 81 62 54 0.61152197015467691 63 7416 19 7009 53 6189 4 6212 55 7617 54 4064
18693 -1.82171819805542 -1.3407033379255018 4.3243788142087576 72 54 40 0.21921817710569688 47 6307 19 7014 53 6355 55 7319
18694 -1.82171819805542 -1.3407033379255018 4.3243788142087576 72 54 40 0.21921817710569688 47 6308 19 7015 53 6356 55 7320
18695 -1.380685819372317 4.2945327525841508 2.1356203201457689 52 40 25 0.15411784744869164 63 7427 19 7022 53 6200 4 6227
18696 0.28535488341352355 0.73376490555433183 3.3558672649408003 153 5 5 1.0986217718444091 63 7703 19 7051 53 6240
18697 0.67757248983687202 0.65302282780657639 3.4983556654707928 180 170 200 0.6211238056545586 29 7352 19 7064 53 6260 48 4243 58 4504 54 4417
18698 -0.38165718939336313 1.9463311253468212 3.010514833618664 0 0 0 0.61967853411661034 11 7382 14 4189 23 7054 26 6870 52 6022
18699 -5.4594278806004866 0.57276064998046872 3.550544460221047 118 123 117 0.21173152315490124 63 7728 19 7089 53 6321 4 6645
18700 -4.6302918945983986 3.0447158733303463 2.5926204321060391 68 62 53 0.36672630786703864 47 6484 19 7094 55 7478
18701 -3.5700987837854505 -0.41805222807427839 3.9560924493032226 55 56 50 0.2518053337497948 63 7820 19 7104 53 6332
18702 -3.3009877557496345 -0.85696750368505981 4.1403432399075042 61 52 43 0.37901031706259114 63 7826 19 7106 53 6335 4 6795
18703 -3.0388236711946583 3.0188426407890563 2.5639571525190439 154 185 231 0.86426049922167736 19 7107 53 6156 55 7337 58 3686 54 2782
18704 -2.9368242905038908 -0.91481200300944399 4.1410585535233491 108 111 108 0.60584032123316967 47 6475 63 7829 19 7113 53 6339
18705 -2.5726968211846524 -1.5393472410374558 4.4053446663807563 105 110 106 0.33590181375070499 47 6478 19 7118 53 6443 55 7477
18706 -2.1054769918405927 -0.74905773791487729 4.0768470154666288 65 56 49 0.26240367053136943 47 6424 19 7123 53 6349
18707 -1.6924232791539182 4.397084558607399 2.0982694598848513 69 51 42 1.1000262829681744 63 7624 19 7127 53 6351 54 4076 42 3266
18708 -1.6453857420032409 -1.2207294244381248 4.2660643559482043 111 118 110 0.31069106975476296 47 6428 19 7128 53 6363 55 7326
18709 -1.1764732499842323 -1.1409783406123897 4.2454046202627893 75 81 79 0.50741846071167562 47 6503 19 7186 53 6518 55 7598
18710 0.35774052221797875 0.45610937639450883 3.5609790578253273 196 46 78 0.85440803071671523 63 7848 19 7191 4 6818 55 7689
18711 1.2366004689439081 1.3911075521984604 3.2021721720393441 143 76 117 0.73037936896713618 47 6531 19 7196 53 6471 55 7701 32 6068 29 7510 58 4803
18712 -4.1205832404996423 3.1264032303098053 2.4928085008925032 74 67 59 0.99676521193868195 47 6585 19 7206 55 7719
18713 -2.9083614995209572 -0.64163860412794116 4.0230330793235414 78 83 79 0.70058049457070148 63 7885 19 7211 53 6505 4 6873
18714 -0.67332133101784297 -1.7080836081020059 4.6047449878709408 137 171 216 1.2648901115535403 47 6573 19 7221 53 6564 55 7724
18715 -0.67332133101784297 -1.7080836081020059 4.6047449878709408 137 171 216 1.2648901115535403 47 6574 19 7222 53 6565 55 7725
18716 -3.4291599826764125 -0.57270946151831426 4.0189860551417391 64 56 45 0.98829619719879058 63 7905 19 7231 53 6546 4 6911
18717 -1.7537155956728985 -0.67783701800979912 4.0294277180933031 93 99 96 0.45771913327726865 63 7909 19 7235 53 6553 4 6917
18718 -1.75735295165771 -0.67720715371983942 4.0348075886370829 93 99 96 0.4929904497393533 63 7910 19 7236 53 6554
18719 -0.94453103924866755 -1.606551354101591 4.3814011058755602 73 58 45 1.4556644552992948 47 6548 19 7240 53 6563 55 7683 54 4741
18720 -0.82859238400974444 -1.2902621705387578 4.3848641114132372 133 169 218 1.7853288042787649 47 6572 19 7252 55 7744
18721 -3.1044423824590321 3.4157471413754581 2.3773154349185135 64 54 46 1.2064230375184821 47 6604 19 7256 53 6593 55 7766
18722 -4.3601464204321623 1.44832324154731 3.2098118227699461 130 139 135 0.39752769791518361 31 4623 47 2742 19 857 13 4326 41 4358 63 1145 32 2930
18723 -4.2969535055226791 1.3422436478286743 3.2512120257677752 136 142 139 0.39987840623183085 31 4614 47 2744 19 879 13 4351 63 3660 55 1611 32 2926
18724 -4.0138907170618268 1.2792394899197965 3.2804810338965731 128 135 132 0.26796876059409291 31 4641 47 2825 19 975 13 4393 41 4400 63 3732 55 1663 27 2050
18725 -3.82881809758103 2.0777548295347734 2.9678915414354736 65 73 70 0.45236809927818761 29 5390 13 4287 40 3476 41 2939 19 1052 31 3438 47 3040
18726 -3.6777574586734132 1.4524513195157649 3.2130568694624717 66 74 71 0.36798715110132718 31 1399 47 860 19 1108 29 4076 13 2836 41 1268 63 1392
18727 -3.6040462748592139 2.3215932832084989 2.862707958459934 55 58 53 0.33599221747571345 29 3859 13 2615 41 1044 19 1119 31 3533 47 1114
18728 -3.3080909681534578 2.1259311788496529 2.9386987334825418 63 72 70 0.52157698293007615 29 3897 40 1767 19 1268 31 4846 47 3211 55 1973 32 3128
18729 -3.2395894206256521 0.10974454085502507 3.7294806930142106 50 50 41 0.40593955685169381 29 5848 12 2876 19 1320 62 3282 56 1576 25 3086 11 1905 31 1002
18730 -2.9749423495293152 0.4596323791330722 3.5957845505642099 48 55 54 0.25236646308927801 29 5763 13 3207 40 4821 41 3362 12 2803 63 1810 47 991 19 1413 62 4895 25 4641 31 3195
18731 -2.8236136768915534 0.26477559182057192 3.6629541483333856 126 139 138 0.33764579013417417 29 5804 13 4691 41 4613 63 4148 19 1458 62 4842 25 3155 11 1950 31 1202 4 1464 44 3258
18732 -2.723579938541163 0.23125405763501075 3.6836111627216352 125 129 125 0.24445365199738672 62 4835 25 4606 11 4161 31 3185 19 1502 29 5820 13 4709 41 4625 40 5424 12 3956 63 4174 53 1355 4 1491 44 3260
18733 1.4389589624545822 -1.4163471714594149 4.4196077446590838 42 52 52 0.52675374928746332 51 3938 12 4448 46 3068 19 5670 26 553 47 3885 53 5024
18734 -4.1143054853691083 1.9411584888177871 3.017660869068004 77 85 82 0.40104034591560644 31 6305 47 5856 19 5876 13 6019 41 5203 63 6388 4 3255 55 5582 32 5462 58 1899
18735 -1.5975722090983668 -0.13926947743719534 3.839443421327394 63 73 71 1.0789565350792754 56 6432 11 7337 19 7018 23 7212 37 6672 3 6092 52 6144 14 4210 29 7633 41 6436
18736 -2.5278927249549836 0.25431016467477102 3.6714800694364742 47 52 47 0.34397257079339794 62 3318 26 4990 31 3230 25 4613 19 1566 41 3442 63 1959
18737 1.0183836422769297 1.5578318587202526 3.1693095660984039 175 166 197 0.97523702403678925 56 5803 62 6763 25 6223 11 6476 10 5319 31 6166 31 6379 19 6937 40 5241 41 5860 63 7271 53 6032 4 5926 55 7414 32 5819 21 4987 54 4150
18738 -1.2415360168914442 -1.3641572804145934 4.3271861963503611 61 70 68 0.62308639068433125 61 6291 18 5946 13 6299 12 5418 63 7245 19 6084 26 4572 10 1115 31 4550 23 6044 3 4420 52 5333 53 4705 4 5896 55 5699
18739 -4.0999167205593245 1.5466861154564961 3.1765556668626331 76 87 84 0.33858008792257882 13 5386 41 4367 63 3670 19 3322 31 4668 47 4367 4 1051
18740 -2.8023400622523038 0.22613700478935225 3.6974600135885582 86 92 89 0.47326237534987431 62 5785 56 4899 25 5500 11 6350 31 4618 19 3689 29 5822 63 4161 53 1334 4 1480 32 2904 21 2373 44 3266
18741 1.1798875450224571 1.5119861661323488 3.1721008837774245 168 51 91 1.1878406635447409 56 2275 10 1675 19 4438 56 4062 25 4938 11 5739 10 3433 31 5100 29 4106 13 4932 40 1903 41 3553 63 4788 63 6071 53 2315 55 4786 21 1355 27 1207 58 3209 54 972
18742 1.1349977674250913 1.788163909506836 3.0503480614799106 150 60 89 0.44805834753415663 3 1655 47 5198 56 5192 25 4990 31 5815 40 1826 41 3488 19 5631 53 4930 4 2168 55 6065 32 4498 27 3237 34 2728
18743 -2.8946635707136874 0.14747152079668882 3.7165773991352364 145 154 150 0.35006820192946553 29 7378 13 6416 40 5996 12 5630 63 6578 19 5966 62 6701 31 5981 53 3317 4 4915
18744 -4.5575038495038136 1.654667851149513 3.103951916939816 64 60 55 1.1154772863158366 13 6647 41 6245 63 7380 19 6399 31 6290 47 5823 4 6194 55 6456 32 4992 58 2904
18745 -2.9302855908195022 0.32662257563824021 3.6503379556446838 128 146 146 0.2932131927905573 29 6620 13 5566 40 5413 41 5347 63 5627 19 3649 62 5795 25 5506 11 5548 31 4616 53 1280 4 1430
18746 -2.4195641929364777 0.30593506160947548 3.6563372063364046 65 73 70 0.30028267537476888 29 5798 13 4737 40 4846 41 3445 12 2841 63 1971 19 1606 25 3191 11 4176 31 3273 32 1268 44 2935
18747 -2.5673330380771926 0.32262006170143798 3.6459148747329966 49 56 54 0.28823107028028966 29 5789 13 4711 40 4842 41 4623 12 2831 63 4191 19 1546 62 3350 25 3186 26 3598 10 1744 31 1304 44 2936 60 2494
18748 -2.4571861181128591 0.31320059053330573 3.6478762693440285 124 132 132 0.26323139373497711 29 4467 13 3325 40 3874 41 3440 12 1422 63 1966 19 1596 62 3346 25 3188 11 4178 26 5006 31 3261 44 2450 60 1300 27 1037
18749 -0.10822525811796077 0.39083046135429833 3.560256576411259 32 11 28 1.1497237792681372 3 3333 52 4633 61 5196 18 3931 37 3669 22 6036 29 5785 13 4986 13 5768 41 5530 46 3848 30 4022 19 2203 22 2533 51 2179 53 2023 4 5116 55 4491 16 1215 27 4389 48 1214 9 3722 59 4895 17 3117 28 2493 45 3118
18750 0.57749540988617898 0.42548473293003014 3.544813408901339 200 52 91 1.8800467094900788 13 5835 47 5660 19 6215 29 4457 13 5060 40 2292 18 2182 63 4810 47 3886 4 2240 55 4611 55 6675 27 3368
18751 0.72444223354529702 2.005945660090545 2.9895302393850867 224 83 122 0.6723612279321679 3 3430 52 4598 19 4342 56 2426 26 1894 31 5117 53 4857 10 5387 55 4761 32 3381 9 1501
18752 -2.6482056841158834 0.60254744159041185 3.5454775830426177 137 150 149 0.51925859335574309 62 6717 56 5657 25 6434 11 6864 31 6012 47 5888 19 6497 29 7351 13 6406 40 5980 41 6292 12 5259 63 7123 4 5760 32 5002 21 4400 44 3542 60 4336
18753 -1.1057877876253996 -1.4874280888414735 4.3804028002064568 105 117 117 0.32103841011902667 3 3255 52 4681 12 5002 13 5944 19 5369 31 3048 47 4724 53 4719 4 3970 55 2121
18754 -2.494739240793904 0.048325184750523213 3.7557583672405506 48 46 36 0.51360483452448802 56 4882 62 6325 25 5488 11 6329 26 6318 10 5746 31 5470 19 5161 29 7121 13 6154 41 5850 12 5297 63 6616 53 3374 4 3600 32 2905 21 2359 44 3459 60 4615 1 4135
18755 -2.7744331091055372 0.32427143222536492 3.6466439738006957 135 147 140 0.25491903295822943 29 7109 13 6131 40 5756 41 5833 12 5281 63 5649 19 5133 62 6347 56 5637 25 6063 11 6359 31 5476 53 1333 4 3526 44 3447 60 4355
18756 -4.6709312517968389 1.5970398367585361 3.1443703016576205 141 148 144 0.47226431404472308 31 5458 47 5284 19 4836 41 5743 63 6368 4 3209 55 3965 32 4126 58 545
18757 1.0034750840330797 1.1840198387237217 3.3090235136358745 177 43 83 1.8659492124092174 13 3627 41 1978 63 4797 19 4394 56 5080 13 5752 40 4623 41 5479 29 4215 12 2677 63 6885 53 2268 4 2245 55 4743 55 6745 32 3303 21 3715 27 3304 45 1771 43 1074
18758 -0.18710775299449767 2.2343393542629495 2.8726396192875439 37 50 33 1.2048080040407378 62 6086 25 5044 10 4803 23 6276 37 5720 18 4938 22 5320 14 3433 30 3910 47 5068 19 4197 25 3839 23 4179 37 2082 14 888
18759 -1.1586535519257402 -1.2780417493356411 4.3051773565106286 125 131 126 0.25069358836448741 31 3102 47 3435 19 4074 13 5915 63 5977 53 1869 4 3921 55 2140
18760 -1.4873811980431144 -1.2267311271969636 4.2696044688090646 49 57 55 0.29199606854373417 13 5150 12 4278 63 4581 19 4004 26 3043 31 1003 47 1317 53 1781 4 1974
18761 0.34965452883384879 0.48420219404992632 3.5349558808093757 194 50 83 0.89119173857222556 13 3692 63 6039 19 5522 52 4567 18 4866 4 2170
18762 0.49091548288986719 0.23337536040872209 3.5838501053151366 24 13 22 0.51225157994764459 13 2026 41 3817 19 2352 13 5087 63 6079 27 1413
18763 -1.1091843120971796 -1.2903073023949485 4.299895878942646 63 71 68 0.47134557299620766 23 3714 37 3751 3 1632 61 5312 18 5050 13 5192 12 4309 63 4698 19 2055 31 1095 47 1529 4 2078
18764 -1.1687941571220737 -1.1021525206258207 4.2379959468817363 124 132 129 0.27505222887709374 31 1167 47 1559 19 2038 13 5167 63 4657 4 2037
18765 0.63874812769556777 -1.4230658896116135 4.3966870628200754 48 59 57 0.56159419151163303 37 3344 61 5095 18 4852 22 6076 12 5464 19 6234 31 3418 47 3723 55 4484 58 909
18768 -8.0086824629585784 0.88884116177993766 3.4124976520779118 129 138 136 0.15834405598471821 63 4992 53 327 4 558
18769 -7.5124438700952165 1.0798337601629566 3.3265135811535864 138 144 144 0.16579977407290186 63 2964 53 363 4 582 55 941
18770 -6.7433877852842459 4.0511712492616274 2.152163624263562 129 133 129 0.15431956326552027 19 4589 53 424 55 3852
18771 -6.7311056447158144 3.9478112114886064 2.1912410425360598 122 127 123 0.14224948620007988 19 85 53 425 55 1339
18772 -6.6377693247816438 3.8123169449547043 2.2463731782764778 89 94 88 0.17931775519867532 19 4603 53 433 4 521 55 3847 58 498
18773 -6.8047904650342019 0.68824826441459153 3.5080377055666796 85 89 88 0.16379443653103168 19 4607 63 3162 53 434 4 3082
18774 -6.6571001331134942 0.42374349030517638 3.6058318892375225 134 140 138 0.11987875264065677 19 2749 53 464 55 1030
18775 -6.4916168196043857 3.7958523561869413 2.2645072069766252 133 137 131 0.15585343312188499 19 2739 53 469 55 3871 58 504
18776 -6.4126648378652087 4.8601297275016178 1.8738326605480768 101 103 98 0.58166124791721696 19 2764 53 488 4 501 41 2379
18777 -6.3891604225157757 2.5488863325453299 2.7479979754094717 133 138 134 0.08133005781518278 19 2779 53 494 55 1245
18778 -6.1736612213452648 3.9712941519245621 2.1900947469399066 114 119 113 0.13957242559043184 19 197 53 513 55 3929
18779 -6.2501132399289778 -0.33148557117877242 3.9177391018812324 79 84 80 0.34565686668737955 63 6354 53 536 4 3175 55 1033
18780 -6.1582144483762855 0.26585966486906326 3.6775824484803361 78 83 79 0.30732698611212717 19 265 63 5240 53 542
18781 -6.1949571675022446 -1.3682690496530443 4.3562262092064445 69 75 71 0.24796535410304701 19 295 53 565 4 3265
18782 -5.8126855465535616 0.67003448849575187 3.4923835699477936 87 91 87 0.17315153467478353 63 3399 53 582 4 825
18783 -5.5920545528938375 4.2918942040614754 2.0760962722090737 125 128 121 0.15071679897075657 19 2937 53 595 55 4011 58 603
18784 -5.7427261651890511 0.26069231123646619 3.6685426958751428 118 123 119 0.058609356132115265 63 3494 53 599 4 892
18785 -5.6993232136401977 0.60957022619973122 3.5361046978844728 84 89 85 0.14159628012753714 19 411 63 5266 53 609 4 861
18786 -5.721370353795705 -0.60071258067453515 4.030917094264046 152 157 153 0.2840377934535942 63 5356 53 614 4 3256
18787 -5.4894977157819547 0.71083961188450717 3.4868939331674098 73 78 74 0.092800489766087457 19 2991 53 629 55 1239
18788 -5.325127010465712 0.26735308516366302 3.6857799065197043 142 144 139 0.069496503230783727 19 3050 53 671 55 1238
18789 -5.2631143849989241 -1.1693944738143409 4.261233754564377 143 149 147 0.066202279745637915 19 587 53 689 4 1169
18790 -5.2141811414508439 -1.5086604716186112 4.4066493783851257 124 130 126 0.29209349535026102 19 3084 53 693 4 3371 55 1093
18791 -4.8949858298063882 4.3496274358425193 2.0639865686942751 119 124 120 0.14426444939526181 19 3093 63 278 53 695
18792 -4.9432239399778908 0.65910652480583065 3.5100736016594207 152 157 152 0.053629820170290797 19 3116 53 724 55 1367
18793 -4.8842187210064765 0.80659192099709964 3.4348863353218904 84 91 84 0.29868057409608662 63 5330 53 728 4 982 55 1400 32 2778
18794 -4.9967748456106538 -1.4781225731573164 4.3702625087738696 149 155 152 0.11522363612298155 19 3125 53 734 55 1118
18795 -5.0062877016609679 -1.4795605424719971 4.376583108929009 149 155 152 0.098568261900761844 19 3124 53 735 4 3388
18796 -4.997724354003056 -1.7419089771884773 4.486491568007601 137 146 141 0.19230533749655931 19 3139 53 738 4 1285
18797 -4.5666797611581087 3.7978982659668339 2.2334187754882522 125 129 128 0.23097116978306284 19 3164 53 752 55 1856
18798 -4.8149040270447108 0.35478163895316278 3.6626558483625025 65 68 62 0.072566612235773917 19 3169 53 757 55 1378
18799 -4.8856124413596742 -1.2951464630451379 4.3123463372014275 79 85 81 0.25160152145513975 19 717 53 759 4 3390
18800 -4.4275060062933296 4.3850432564941553 2.0237935693082365 86 88 85 0.12685621141173287 19 3202 53 781 55 4165
18802 -4.3248004975054943 4.5550300487896722 1.9770547431307821 83 85 82 0.14554057464186856 19 829 63 394 53 819
18803 -4.5636409298372209 -1.3459653072037581 4.328363534241789 132 137 131 0.061696414063612127 19 3238 53 828 4 1328
18804 -4.5573543808924741 -1.4311859237974123 4.3618672898655149 117 126 123 0.082516563807351465 19 834 53 835 4 1339
18805 -4.2122450610034159 4.2187125359728483 2.1137096951281178 127 132 128 0.13087760816010721 19 3273 63 3218 53 846
18806 -4.4523045373552712 -0.77689622915534717 4.0947275988210459 45 50 46 0.14272827125761586 63 5515 53 855 4 1264
18807 -4.4523045373552712 -0.77689622915534717 4.0947275988210459 45 50 46 0.14272827125761586 63 5514 53 856 4 1263
18808 -4.0938412480044422 4.2427800412763714 2.0874101958893929 149 152 149 0.10070601867016128 19 3291 53 882 55 2054
18809 -4.2454728505421961 -0.1179200433521852 3.8354420707466601 76 82 82 0.11225800215224861 63 5486 53 906 4 1225
18810 -3.9507359219201423 4.466005003112163 2.003959734091898 97 100 93 0.097397596064125902 19 3331 63 3235 53 914
18811 -4.2284877348579375 -0.6432363531265195 4.0457804341749908 128 133 129 0.18197145752089772 19 3313 63 5539 53 920 4 1303
18812 -4.1251355482693963 0.41779227667207719 3.6099361485948682 143 152 147 0.30150904563709718 31 4457 53 927 32 2806 21 2361
18813 -4.1501152619770272 -1.3208845763682611 4.3120241126618382 132 138 134 0.078263796783666864 19 3344 53 947 4 3489
18814 -4.0032091141770465 0.82895150666389239 3.4790638126050193 131 134 124 0.1948585748861201 63 3811 53 970 55 1625
18815 -3.7651963441345391 4.1701876786462115 2.1236301288578554 68 72 71 0.18177601730778459 19 4940 53 974 55 5725 58 2026
18816 -4.0150053868602402 -1.3248306436156243 4.3120670486286103 127 131 130 0.03884924862197358 19 3383 53 995 4 1428
